ply
format ascii 1.0
comment PCL generated
element vertex 1042
property float x
property float y
property float z
property uchar red
property uchar green
property uchar blue
property uchar alpha
element camera 0
property float view_px
property float view_py
property float view_pz
property float x_axisx
property float x_axisy
property float x_axisz
property float y_axisx
property float y_axisy
property float y_axisz
property float z_axisx
property float z_axisy
property float z_axisz
property float focal
property float scalex
property float scaley
property float centerx
property float centery
property int viewportx
property int viewporty
property float k1
property float k2
end_header
-0.039888576 0.072261915 0.60700005 81 55 58 0
-0.038668573 0.072142854 0.60600001 82 53 63 0
-0.037514284 0.072142854 0.60600001 83 56 65 0
-0.0363 0.072023809 0.60500002 80 63 67 0
-0.035147622 0.072023809 0.60500002 77 63 49 0
-0.033939049 0.071904771 0.60400003 75 63 31 0
-0.032734286 0.071785718 0.60300004 73 58 42 0
-0.031585716 0.071785718 0.60300004 74 55 53 0
-0.03038667 0.071666673 0.60200006 76 54 59 0
-0.029240003 0.071666673 0.60200006 82 55 66 0
-0.028093336 0.071666673 0.60200006 88 48 51 0
-0.026901904 0.07154762 0.60100001 71 50 37 0
-0.025757143 0.07154762 0.60100001 54 46 29 0
-0.02457143 0.071428567 0.60000002 37 1 22 0
-0.023428572 0.071428567 0.60000002 20 1 18 0
-0.022285715 0.071428567 0.60000002 11 1 15 0
-0.02202381 0.074404761 0.625 2 1 10 0
-0.020833334 0.074404761 0.625 2 1 5 0
-0.019642858 0.074404761 0.625 2 1 3 0
-0.01845238 0.074404761 0.625 2 1 1 0
-0.017261904 0.074404761 0.625 3 1 1 0
-0.016097143 0.074523814 0.62600005 2 1 2 0
-0.014880952 0.074404761 0.625 1 1 1 0
-0.013690476 0.074404761 0.625 1 1 1 0
-0.0125 0.074404761 0.625 2 1 1 0
-0.011291428 0.074285716 0.62400001 1 1 2 0
-0.010119048 0.074404761 0.625 1 1 2 0
-0.0089285709 0.074404761 0.625 1 1 1 0
-0.0077380952 0.074404761 0.625 2 1 1 0
-0.0065476191 0.074404761 0.625 2 1 1 0
-0.005357143 0.074404761 0.625 3 1 1 0
-0.0041733338 0.074523814 0.62600005 3 1 2 0
-0.0029809524 0.074523814 0.62600005 4 1 1 0
-0.0017885716 0.074523814 0.62600005 9 1 1 0
-0.00059619051 0.074523814 0.62600005 15 1 1 0
0.00059619051 0.074523814 0.62600005 10 1 1 0
0.0017857143 0.074404761 0.625 5 1 2 0
0.0029761905 0.074404761 0.625 3 1 3 0
0.0041733338 0.074523814 0.62600005 2 1 2 0
0.005357143 0.074404761 0.625 2 1 2 0
0.0065580956 0.074523814 0.62600005 2 1 2 0
0.0077504767 0.074523814 0.62600005 2 1 2 0
0.0089428574 0.074523814 0.62600005 2 1 2 0
0.010135239 0.074523814 0.62600005 2 1 2 0
0.011345715 0.074642867 0.62700003 2 1 1 0
0.01254 0.074642867 0.62700003 2 1 1 0
0.013734286 0.074642867 0.62700003 2 1 1 0
0.014928573 0.074642867 0.62700003 1 1 1 0
0.016148573 0.074761905 0.62800002 1 1 2 0
0.017372381 0.07488095 0.62900001 4 1 3 0
0.018570477 0.07488095 0.62900001 7 1 2 0
0.01983143 0.075119056 0.63100004 4 1 1 0
0.0211 0.075357139 0.63300002 2 1 1 0
0.022340951 0.075476192 0.634 2 1 1 0
0.023585714 0.075595245 0.63500005 2 1 1 0
0.02479524 0.075595245 0.63500005 6 1 1 0
0.025226669 0.073333338 0.61600006 10 1 1 0
0.026400004 0.073333338 0.61600006 14 1 2 0
0.027573336 0.073333338 0.61600006 19 2 11 0
0.028793335 0.073452391 0.61700004 24 4 20 0
0.029968575 0.073452391 0.61700004 30 7 20 0
0.031143812 0.073452391 0.61700004 38 13 20 0
0.03231905 0.073452391 0.61700004 46 13 22 0
0.033494286 0.073452391 0.61700004 42 14 24 0
0.034669526 0.073452391 0.61700004 38 17 21 0
0.035902858 0.073571429 0.61800003 38 20 19 0
0.037080001 0.073571429 0.61800003 38 25 18 0
0.038319048 0.073690474 0.61900002 46 26 17 0
0.039498094 0.073690474 0.61900002 55 25 27 0
0.040677145 0.073690474 0.61900002 41 21 37 0
0.041856192 0.073690474 0.61900002 28 21 20 0
0.043035239 0.073690474 0.61900002 20 21 3 0
0.044285715 0.073809519 0.62 12 18 2 0
0.045613337 0.074047625 0.62200004 10 11 2 0
0.046798099 0.074047625 0.62200004 8 10 3 0
0.04806 0.074166663 0.62300003 14 9 4 0
0.049325712 0.074285716 0.62400001 20 7 5 0
0.050595239 0.074404761 0.625 13 5 6 0
0.051868577 0.074523814 0.62600005 7 4 3 0
0.053060956 0.074523814 0.62600005 4 5 1 0
0.05442667 0.074761905 0.62800002 1 6 2 0
0.05571143 0.07488095 0.62900001 6 9 2 0
0.05709048 0.075119056 0.63100004 11 11 2 0
0.058384765 0.075238094 0.63200003 16 18 1 0
0.060154289 0.075952381 0.63800001 21 23 11 0
0.061369527 0.075952381 0.63800001 19 30 21 0
-0.062899999 0.076079048 0.62900001 36 18 37 0
-0.061603814 0.075958095 0.62800002 39 22 49 0
-0.060311433 0.07583715 0.62700003 42 26 38 0
-0.058740001 0.075353332 0.62300003 40 27 28 0
-0.057460956 0.075232387 0.62200004 38 28 23 0
-0.056095239 0.074990474 0.62 36 29 19 0
-0.054825716 0.074869521 0.61900002 35 31 22 0
-0.053560004 0.074748576 0.61800003 39 30 26 0
-0.05238286 0.074748576 0.61800003 44 29 26 0
-0.051122863 0.074627623 0.61700004 46 31 27 0
-0.049785715 0.074385718 0.61500001 49 33 30 0
-0.048456192 0.074143812 0.61300004 47 37 34 0
-0.047211431 0.074022859 0.61200005 45 42 32 0
-0.046045717 0.074022859 0.61200005 50 42 30 0
-0.044806667 0.073901907 0.611 56 42 35 0
-0.043500002 0.073660001 0.60900003 60 46 40 0
-0.042339999 0.073660001 0.60900003 65 53 48 0
-0.041112382 0.073539048 0.60800004 72 49 57 0
-0.039888576 0.073418096 0.60700005 79 46 64 0
-0.038668573 0.073297143 0.60600001 81 47 71 0
-0.037514284 0.073297143 0.60600001 84 49 75 0
-0.0363 0.07317619 0.60500002 80 62 80 0
-0.035089526 0.073055245 0.60400003 76 59 67 0
-0.033939049 0.073055245 0.60400003 74 60 54 0
-0.032734286 0.072934292 0.60300004 71 61 55 0
-0.031585716 0.072934292 0.60300004 70 55 57 0
-0.030437144 0.072934292 0.60300004 70 53 64 0
-0.029288573 0.072934292 0.60300004 76 51 72 0
-0.028093336 0.07281334 0.60200006 82 47 48 0
-0.026946669 0.07281334 0.60200006 68 45 25 0
-0.025800001 0.07281334 0.60200006 55 41 24 0
-0.02461238 0.072692387 0.60100001 37 13 23 0
-0.023467619 0.072692387 0.60100001 20 1 13 0
-0.022322858 0.072692387 0.60100001 14 1 4 0
-0.02202381 0.075595237 0.625 8 1 2 0
-0.020833334 0.075595237 0.625 5 1 1 0
-0.019674286 0.075716197 0.62600005 3 1 1 0
-0.01845238 0.075595237 0.625 3 1 1 0
-0.017261904 0.075595237 0.625 3 1 1 0
-0.016097143 0.075716197 0.62600005 3 1 1 0
-0.014880952 0.075595237 0.625 3 1 1 0
-0.013690476 0.075595237 0.625 3 1 1 0
-0.0125 0.075595237 0.625 3 1 2 0
-0.011291428 0.075474285 0.62400001 2 1 4 0
-0.010102857 0.075474285 0.62400001 2 1 2 0
-0.0089142863 0.075474285 0.62400001 2 1 1 0
-0.0077380952 0.075595237 0.625 2 2 1 0
-0.0065371431 0.075474285 0.62400001 2 1 1 0
-0.005357143 0.075595237 0.625 2 1 1 0
-0.0041666664 0.075595237 0.625 2 1 1 0
-0.0029809524 0.075716197 0.62600005 3 1 1 0
-0.0017885716 0.075716197 0.62600005 6 1 1 0
-0.00059619051 0.075716197 0.62600005 10 2 1 0
0.00059619051 0.075716197 0.62600005 6 1 1 0
0.0017885716 0.075716197 0.62600005 3 1 2 0
0.0029761905 0.075595237 0.625 2 1 3 0
0.0041666664 0.075595237 0.625 1 1 3 0
0.005357143 0.075595237 0.625 1 1 3 0
0.0065476191 0.075595237 0.625 2 1 2 0
0.0077504767 0.075716197 0.62600005 2 1 1 0
0.0089428574 0.075716197 0.62600005 2 1 1 0
0.010135239 0.075716197 0.62600005 2 1 1 0
0.01132762 0.075716197 0.62600005 2 1 1 0
0.01254 0.07583715 0.62700003 2 1 1 0
0.013734286 0.07583715 0.62700003 2 2 1 0
0.014928573 0.07583715 0.62700003 2 1 1 0
0.016122857 0.07583715 0.62700003 3 1 3 0
0.017344762 0.075958095 0.62800002 4 1 5 0
0.018540952 0.075958095 0.62800002 6 1 3 0
0.019768571 0.076079048 0.62900001 4 1 1 0
0.021066668 0.076441906 0.63200003 2 2 1 0
0.022305716 0.076562852 0.63300002 2 1 1 0
0.023548571 0.076683804 0.634 2 1 1 0
0.024756189 0.076683804 0.634 7 1 1 0
0.025226669 0.074506678 0.61600006 12 1 2 0
0.026400004 0.074506678 0.61600006 16 1 3 0
0.027573336 0.074506678 0.61600006 20 3 10 0
0.028793335 0.074627623 0.61700004 26 3 18 0
0.029968575 0.074627623 0.61700004 32 7 16 0
0.031143812 0.074627623 0.61700004 36 13 14 0
0.03231905 0.074627623 0.61700004 41 20 13 0
0.033494286 0.074627623 0.61700004 38 20 13 0
0.034669526 0.074627623 0.61700004 35 21 12 0
0.035902858 0.074748576 0.61800003 32 21 12 0
0.037080001 0.074748576 0.61800003 30 26 13 0
0.038257144 0.074748576 0.61800003 35 25 14 0
0.039498094 0.074869521 0.61900002 40 24 29 0
0.040677145 0.074869521 0.61900002 31 19 45 0
0.041856192 0.074869521 0.61900002 23 15 25 0
0.043104764 0.074990474 0.62 15 16 5 0
0.044285715 0.074990474 0.62 7 17 3 0
0.045613337 0.075232387 0.62200004 7 8 2 0
0.046873335 0.075353332 0.62300003 7 4 3 0
0.048137143 0.075474285 0.62400001 11 6 5 0
0.049325712 0.075474285 0.62400001 15 12 3 0
0.050595239 0.075595237 0.625 11 4 2 0
0.051868577 0.075716197 0.62600005 7 3 2 0
0.053315237 0.076079048 0.62900001 5 5 2 0
0.054513335 0.076079048 0.62900001 3 7 3 0
0.055977143 0.076441906 0.63200003 6 8 4 0
0.057271428 0.076562852 0.63300002 9 11 3 0
0.058569524 0.076683804 0.634 12 15 2 0
0.059871431 0.076804765 0.63500005 15 26 4 0
0.061080955 0.076804765 0.63500005 12 23 7 0
-0.062899999 0.077277139 0.62900001 34 19 33 0
-0.061603814 0.077154286 0.62800002 36 21 42 0
-0.060311433 0.077031434 0.62700003 39 19 33 0
-0.058834285 0.076662861 0.62400001 36 17 24 0
-0.057460956 0.076417148 0.62200004 34 19 17 0
-0.056095239 0.076171428 0.62 31 22 10 0
-0.054914284 0.076171428 0.62 28 30 16 0
-0.053646669 0.076048575 0.61900002 33 30 22 0
-0.05238286 0.075925715 0.61800003 39 30 25 0
-0.051122863 0.075802855 0.61700004 45 31 27 0
-0.049785715 0.075557142 0.61500001 51 32 29 0
-0.048535239 0.075434282 0.61400002 51 27 31 0
-0.047288574 0.07531143 0.61300004 51 41 33 0
-0.046045717 0.075188577 0.61200005 54 45 35 0
-0.044806667 0.075065717 0.611 58 45 38 0
-0.043500002 0.074820004 0.60900003 61 46 41 0
-0.042339999 0.074820004 0.60900003 64 53 47 0
-0.041112382 0.074697152 0.60800004 70 48 53 0
-0.039888576 0.074574292 0.60700005 77 46 59 0
-0.038732383 0.074574292 0.60700005 81 47 65 0
-0.037514284 0.074451432 0.60600001 86 54 66 0
-0.0363 0.074328579 0.60500002 81 61 68 0
-0.035147622 0.074328579 0.60500002 76 56 58 0
-0.033995237 0.074328579 0.60500002 73 54 49 0
-0.032788571 0.074205711 0.60400003 70 54 53 0
-0.031585716 0.074082859 0.60300004 67 55 57 0
-0.030437144 0.074082859 0.60300004 64 55 61 0
-0.029288573 0.074082859 0.60300004 70 49 65 0
-0.028140003 0.074082859 0.60300004 77 46 49 0
-0.026991429 0.074082859 0.60300004 66 44 33 0
-0.025842858 0.074082859 0.60300004 56 43 27 0
-0.024653334 0.073960006 0.60200006 38 26 22 0
-0.023506669 0.073960006 0.60200006 20 7 16 0
-0.022360003 0.073960006 0.60200006 17 1 10 0
-0.02202381 0.076785713 0.625 14 1 7 0
-0.020833334 0.076785713 0.625 9 1 5 0
-0.019642858 0.076785713 0.625 4 1 3 0
-0.01845238 0.076785713 0.625 4 1 1 0
-0.017234286 0.076662861 0.62400001 4 1 1 0
-0.016071428 0.076785713 0.625 4 1 1 0
-0.014904764 0.076908574 0.62600005 5 1 1 0
-0.013690476 0.076785713 0.625 4 1 1 0
-0.0125 0.076785713 0.625 4 1 2 0
-0.011291428 0.076662861 0.62400001 3 1 3 0
-0.010102857 0.076662861 0.62400001 3 1 2 0
-0.0089142863 0.076662861 0.62400001 2 1 2 0
-0.0077380952 0.076785713 0.625 2 1 1 0
-0.0065476191 0.076785713 0.625 1 1 1 0
-0.005357143 0.076785713 0.625 1 1 1 0
-0.0041666664 0.076785713 0.625 2 1 1 0
-0.0029761905 0.076785713 0.625 3 1 1 0
-0.0017857143 0.076785713 0.625 4 1 1 0
-0.00059523806 0.076785713 0.625 5 1 1 0
0.00059619051 0.076908574 0.62600005 3 1 1 0
0.0017857143 0.076785713 0.625 2 1 1 0
0.0029761905 0.076785713 0.625 1 1 2 0
0.0041666664 0.076785713 0.625 1 1 2 0
0.005357143 0.076785713 0.625 1 1 2 0
0.0065476191 0.076785713 0.625 2 1 1 0
0.0077380952 0.076785713 0.625 2 1 1 0
0.0089285709 0.076785713 0.625 2 1 1 0
0.010135239 0.076908574 0.62600005 2 1 1 0
0.01132762 0.076908574 0.62600005 2 1 1 0
0.01252 0.076908574 0.62600005 2 3 1 0
0.013712382 0.076908574 0.62600005 2 1 1 0
0.014904764 0.076908574 0.62600005 4 1 1 0
0.016097143 0.076908574 0.62600005 6 1 2 0
0.017372381 0.077277139 0.62900001 5 1 3 0
0.018570477 0.077277139 0.62900001 5 1 2 0
0.01983143 0.077522859 0.63100004 3 1 1 0
0.021033334 0.077522859 0.63100004 2 1 1 0
0.022270476 0.077645719 0.63200003 2 1 1 0
0.023474285 0.077645719 0.63200003 3 1 1 0
0.023936192 0.07531143 0.61300004 9 1 1 0
0.025185714 0.075557142 0.61500001 15 1 1 0
0.026357144 0.075557142 0.61500001 18 2 2 0
0.027528571 0.075557142 0.61500001 22 2 9 0
0.028746668 0.075680003 0.61600006 28 3 17 0
0.029920002 0.075680003 0.61600006 34 8 17 0
0.031093335 0.075680003 0.61600006 35 13 18 0
0.032266673 0.075680003 0.61600006 37 15 19 0
0.033494286 0.075802855 0.61700004 34 17 21 0
0.034669526 0.075802855 0.61700004 32 20 16 0
0.035902858 0.075925715 0.61800003 27 23 10 0
0.037080001 0.075925715 0.61800003 22 22 11 0
0.038257144 0.075925715 0.61800003 24 22 13 0
0.039498094 0.076048575 0.61900002 26 19 20 0
0.040677145 0.076048575 0.61900002 22 17 27 0
0.041856192 0.076048575 0.61900002 18 13 17 0
0.043104764 0.076171428 0.62 10 12 7 0
0.044285715 0.076171428 0.62 3 8 8 0
0.045613337 0.076417148 0.62200004 5 5 8 0
0.046873335 0.076540001 0.62300003 7 4 10 0
0.048137143 0.076662861 0.62400001 8 4 12 0
0.049404763 0.076785713 0.625 10 4 7 0
0.050676193 0.076908574 0.62600005 8 4 2 0
0.051868577 0.076908574 0.62600005 7 4 1 0
0.053315237 0.077277139 0.62900001 6 5 1 0
0.054513335 0.077277139 0.62900001 5 5 2 0
0.055977143 0.077645719 0.63200003 6 5 4 0
0.057271428 0.077768579 0.63300002 8 10 5 0
0.058477145 0.077768579 0.63300002 8 12 6 0
0.059777141 0.077891432 0.634 9 15 7 0
0.060984757 0.077891432 0.634 5 19 8 0
-0.062800005 0.078350477 0.62800002 35 12 29 0
-0.061505716 0.078225717 0.62700003 38 18 36 0
-0.060311433 0.078225717 0.62700003 42 20 28 0
-0.058834285 0.07785143 0.62400001 37 21 20 0
-0.057553336 0.07772667 0.62300003 32 22 11 0
-0.056276195 0.07760191 0.62200004 30 26 2 0
-0.054914284 0.077352382 0.62 28 30 10 0
-0.053646669 0.077227622 0.61900002 33 31 19 0
-0.05238286 0.077102862 0.61800003 39 33 23 0
-0.051205717 0.077102862 0.61800003 45 31 28 0
-0.049866669 0.076853342 0.61600006 51 31 28 0
-0.048614286 0.076728575 0.61500001 54 30 29 0
-0.047365714 0.076603815 0.61400002 58 40 34 0
-0.046045717 0.076354288 0.61200005 57 43 40 0
-0.044806667 0.07622952 0.611 56 46 41 0
-0.043500002 0.075980008 0.60900003 60 48 43 0
-0.042339999 0.075980008 0.60900003 64 54 46 0
-0.041112382 0.07585524 0.60800004 69 50 50 0
-0.039888576 0.07573048 0.60700005 75 46 54 0
-0.038732383 0.07573048 0.60700005 78 54 59 0
-0.037514284 0.075605713 0.60600001 81 76 57 0
-0.036359999 0.075605713 0.60600001 77 56 56 0
-0.035147622 0.075480953 0.60500002 73 52 50 0
-0.033995237 0.075480953 0.60500002 70 53 44 0
-0.032788571 0.075356193 0.60400003 67 55 51 0
-0.031585716 0.075231433 0.60300004 67 55 58 0
-0.030437144 0.075231433 0.60300004 67 57 58 0
-0.029288573 0.075231433 0.60300004 72 55 58 0
-0.028140003 0.075231433 0.60300004 77 53 49 0
-0.026991429 0.075231433 0.60300004 72 49 41 0
-0.025842858 0.075231433 0.60300004 67 46 31 0
-0.024694288 0.075231433 0.60300004 53 35 21 0
-0.023545716 0.075231433 0.60300004 40 13 19 0
-0.022397144 0.075231433 0.60300004 37 7 17 0
-0.021248572 0.075231433 0.60300004 34 2 13 0
-0.020866668 0.078100957 0.62600005 24 1 9 0
-0.019674286 0.078100957 0.62600005 15 1 5 0
-0.018481907 0.078100957 0.62600005 19 1 2 0
-0.017261904 0.07797619 0.625 23 1 2 0
-0.016097143 0.078100957 0.62600005 22 1 2 0
-0.014904764 0.078100957 0.62600005 21 1 1 0
-0.013690476 0.07797619 0.625 21 1 1 0
-0.0125 0.07797619 0.625 21 1 2 0
-0.011291428 0.07785143 0.62400001 21 1 3 0
-0.010102857 0.07785143 0.62400001 22 1 3 0
-0.0089142863 0.07785143 0.62400001 19 3 3 0
-0.0077257147 0.07785143 0.62400001 17 5 2 0
-0.0065371431 0.07785143 0.62400001 19 4 1 0
-0.005357143 0.07797619 0.625 22 3 1 0
-0.0041666664 0.07797619 0.625 18 2 1 0
-0.0029761905 0.07797619 0.625 15 1 1 0
-0.0017885716 0.078100957 0.62600005 14 1 1 0
-0.00059523806 0.07797619 0.625 13 1 1 0
0.00059619051 0.078100957 0.62600005 11 1 1 0
0.0017885716 0.078100957 0.62600005 8 1 1 0
0.0029761905 0.07797619 0.625 8 1 1 0
0.0041666664 0.07797619 0.625 9 1 1 0
0.005357143 0.07797619 0.625 7 1 1 0
0.0065476191 0.07797619 0.625 6 1 1 0
0.0077380952 0.07797619 0.625 6 1 1 0
0.0089285709 0.07797619 0.625 6 1 1 0
0.010119048 0.07797619 0.625 6 1 1 0
0.01132762 0.078100957 0.62600005 7 1 1 0
0.01252 0.078100957 0.62600005 7 1 1 0
0.013712382 0.078100957 0.62600005 7 1 1 0
0.014904764 0.078100957 0.62600005 9 1 1 0
0.016097143 0.078100957 0.62600005 11 1 1 0
0.017317142 0.078225717 0.62700003 9 1 1 0
0.018511429 0.078225717 0.62700003 6 1 1 0
0.019705717 0.078225717 0.62700003 4 1 1 0
0.021033334 0.078724764 0.63100004 2 2 1 0
0.022164762 0.078475237 0.62900001 3 1 1 0
0.022768572 0.076479048 0.61300004 5 1 1 0
0.023936192 0.076479048 0.61300004 10 1 1 0
0.025103811 0.076479048 0.61300004 16 3 1 0
0.026314287 0.076603815 0.61400002 21 5 1 0
0.027528571 0.076728575 0.61500001 27 8 9 0
0.028746668 0.076853342 0.61600006 32 9 17 0
0.029920002 0.076853342 0.61600006 37 10 19 0
0.031093335 0.076853342 0.61600006 37 13 22 0
0.032266673 0.076853342 0.61600006 38 14 26 0
0.033494286 0.076978095 0.61700004 35 12 30 0
0.034669526 0.076978095 0.61700004 31 11 19 0
0.035844762 0.076978095 0.61700004 26 15 9 0
0.037080001 0.077102862 0.61800003 21 20 10 0
0.038257144 0.077102862 0.61800003 20 18 12 0
0.039498094 0.077227622 0.61900002 20 16 11 0
0.040677145 0.077227622 0.61900002 17 13 10 0
0.041856192 0.077227622 0.61900002 15 10 10 0
0.043104764 0.077352382 0.62 10 8 10 0
0.044285715 0.077352382 0.62 5 7 12 0
0.045613337 0.07760191 0.62200004 7 4 15 0
0.04702381 0.07797619 0.625 10 3 17 0
0.048214287 0.07797619 0.625 10 3 19 0
0.049483813 0.078100957 0.62600005 11 4 10 0
0.050676193 0.078100957 0.62600005 11 4 2 0
0.051951431 0.078225717 0.62700003 12 4 1 0
0.053230479 0.078350477 0.62800002 10 4 1 0
0.054686669 0.078724764 0.63100004 8 9 2 0
0.055977143 0.078849532 0.63200003 9 9 4 0
0.057271428 0.078974292 0.63300002 10 10 7 0
0.058477145 0.078974292 0.63300002 10 10 10 0
0.059777141 0.079099044 0.634 10 16 10 0
0.061080955 0.079223812 0.63500005 7 18 10 0
0.062290482 0.079223812 0.63500005 5 21 15 0
-0.061603814 0.079546668 0.62800002 40 15 44 0
-0.060311433 0.079420008 0.62700003 45 23 32 0
-0.058928572 0.079166666 0.625 37 34 19 0
-0.057645712 0.079040006 0.62400001 30 32 14 0
-0.056366667 0.078913331 0.62300003 29 30 9 0
-0.055091433 0.078786671 0.62200004 29 30 15 0
-0.053733334 0.078533329 0.62 34 36 20 0
-0.052467622 0.078406669 0.61900002 39 36 24 0
-0.051205717 0.078280002 0.61800003 45 29 28 0
-0.049947623 0.078153335 0.61700004 51 31 29 0
-0.048614286 0.0779 0.61500001 58 34 31 0
-0.047365714 0.077773333 0.61400002 65 34 35 0
-0.046120953 0.077646673 0.61300004 59 34 39 0
-0.044880003 0.077520005 0.61200005 54 47 41 0
-0.043500002 0.077140003 0.60900003 59 51 44 0
-0.042339999 0.077140003 0.60900003 64 53 45 0
-0.041180003 0.077140003 0.60900003 69 52 47 0
-0.03995429 0.077013336 0.60800004 74 48 49 0
-0.038732383 0.076886676 0.60700005 75 61 51 0
-0.037576191 0.076886676 0.60700005 77 56 50 0
-0.036359999 0.076760001 0.60600001 74 51 50 0
-0.035205714 0.076760001 0.60600001 71 49 36 0
-0.033995237 0.076633334 0.60500002 67 47 23 0
-0.032788571 0.076506667 0.60400003 64 51 39 0
-0.031638097 0.076506667 0.60400003 67 56 55 0
-0.030487619 0.076506667 0.60400003 70 55 58 0
-0.029337144 0.076506667 0.60400003 74 54 60 0
-0.028186668 0.076506667 0.60400003 78 53 55 0
-0.027036192 0.076506667 0.60400003 78 53 49 0
-0.025842858 0.076380007 0.60300004 78 48 37 0
-0.024694288 0.076380007 0.60300004 69 45 26 0
-0.023584763 0.076506667 0.60400003 61 39 20 0
-0.02247143 0.076633334 0.60500002 57 33 15 0
-0.021319048 0.076633334 0.60500002 54 23 15 0
-0.020166667 0.076633334 0.60500002 40 14 14 0
-0.019014286 0.076633334 0.60500002 26 8 14 0
-0.018511429 0.079420008 0.62700003 34 3 14 0
-0.017289525 0.079293333 0.62600005 42 3 10 0
-0.016122857 0.079420008 0.62700003 39 3 6 0
-0.014928573 0.079420008 0.62700003 37 7 6 0
-0.013712382 0.079293333 0.62600005 38 12 7 0
-0.0125 0.079166666 0.625 39 19 7 0
-0.011273334 0.078913331 0.62300003 40 26 8 0
-0.010086667 0.078913331 0.62300003 41 21 7 0
-0.0088999998 0.078913331 0.62300003 36 17 7 0
-0.0077257147 0.079040006 0.62400001 32 13 5 0
-0.0065371431 0.079040006 0.62400001 37 9 4 0
-0.0053485716 0.079040006 0.62400001 43 8 4 0
-0.0041666664 0.079166666 0.625 35 7 5 0
-0.0029761905 0.079166666 0.625 28 4 3 0
-0.0017857143 0.079166666 0.625 25 2 2 0
-0.00059523806 0.079166666 0.625 22 1 1 0
0.00059619051 0.079293333 0.62600005 18 1 1 0
0.0017885716 0.079293333 0.62600005 15 1 1 0
0.0029761905 0.079166666 0.625 16 1 1 0
0.0041666664 0.079166666 0.625 17 1 1 0
0.005357143 0.079166666 0.625 14 1 2 0
0.0065476191 0.079166666 0.625 11 1 1 0
0.0077504767 0.079293333 0.62600005 11 1 1 0
0.0089285709 0.079166666 0.625 11 1 4 0
0.010135239 0.079293333 0.62600005 11 1 8 0
0.01132762 0.079293333 0.62600005 12 1 5 0
0.01252 0.079293333 0.62600005 12 1 3 0
0.013712382 0.079293333 0.62600005 12 1 2 0
0.014904764 0.079293333 0.62600005 14 1 2 0
0.016097143 0.079293333 0.62600005 17 1 1 0
0.017289525 0.079293333 0.62600005 12 1 1 0
0.018511429 0.079420008 0.62700003 8 1 1 0
0.019705717 0.079420008 0.62700003 5 1 1 0
0.021033334 0.07992667 0.63100004 2 2 1 0
0.022235239 0.07992667 0.63100004 4 2 1 0
0.022768572 0.077646673 0.61300004 7 2 1 0
0.023936192 0.077646673 0.61300004 12 2 1 0
0.025103811 0.077646673 0.61300004 17 5 3 0
0.026314287 0.077773333 0.61400002 25 8 5 0
0.027528571 0.0779 0.61500001 33 8 11 0
0.0287 0.0779 0.61500001 36 8 17 0
0.029871428 0.0779 0.61500001 40 11 19 0
0.031093335 0.078026675 0.61600006 40 14 22 0
0.032266673 0.078026675 0.61600006 40 14 30 0
0.033494286 0.078153335 0.61700004 35 7 39 0
0.034669526 0.078153335 0.61700004 31 10 26 0
0.035844762 0.078153335 0.61700004 25 13 14 0
0.037080001 0.078280002 0.61800003 20 14 14 0
0.038319048 0.078406669 0.61900002 17 15 14 0
0.039498094 0.078406669 0.61900002 15 11 12 0
0.040677145 0.078406669 0.61900002 13 7 11 0
0.041856192 0.078406669 0.61900002 12 7 8 0
0.043035239 0.078406669 0.61900002 9 8 5 0
0.044285715 0.078533329 0.62 7 7 9 0
0.045613337 0.078786671 0.62200004 10 4 13 0
0.046873335 0.078913331 0.62300003 14 3 13 0
0.048214287 0.079166666 0.625 13 6 14 0
0.049483813 0.079293333 0.62600005 12 4 10 0
0.050757144 0.079420008 0.62700003 15 3 6 0
0.052117143 0.079673328 0.62900001 18 3 3 0
0.053315237 0.079673328 0.62900001 14 4 1 0
0.054686669 0.07992667 0.63100004 11 10 4 0
0.055977143 0.080053337 0.63200003 11 7 7 0
0.057271428 0.080180004 0.63300002 12 10 9 0
0.058569524 0.080306664 0.634 12 9 12 0
0.059871431 0.080433339 0.63500005 12 14 11 0
0.061080955 0.080433339 0.63500005 10 18 10 0
0.062290482 0.080433339 0.63500005 8 20 18 0
-0.061603814 0.080742866 0.62800002 33 18 53 0
-0.060311433 0.080614291 0.62700003 37 26 36 0
-0.058928572 0.080357142 0.625 33 30 19 0
-0.057645712 0.080228575 0.62400001 28 34 18 0
-0.056366667 0.0801 0.62300003 28 31 17 0
-0.055091433 0.079971433 0.62200004 28 30 19 0
-0.053733334 0.079714283 0.62 34 36 22 0
-0.052467622 0.079585716 0.61900002 41 39 25 0
-0.051288571 0.079585716 0.61900002 45 38 29 0
-0.050028574 0.079457149 0.61800003 50 37 31 0
-0.04869334 0.079200007 0.61600006 55 39 33 0
-0.047442857 0.079071432 0.61500001 59 42 36 0
-0.046120953 0.07881429 0.61300004 55 45 39 0
-0.044880003 0.078685716 0.61200005 51 49 42 0
-0.043642856 0.078557141 0.611 55 49 45 0
-0.042479049 0.078557141 0.611 60 55 45 0
-0.041180003 0.078299999 0.60900003 63 52 45 0
-0.03995429 0.078171432 0.60800004 67 50 44 0
-0.038796194 0.078171432 0.60800004 67 51 44 0
-0.037576191 0.078042865 0.60700005 67 53 44 0
-0.036359999 0.077914283 0.60600001 64 50 44 0
-0.035205714 0.077914283 0.60600001 62 46 23 0
-0.034051429 0.077914283 0.60600001 60 46 3 0
-0.032842856 0.077785715 0.60500002 59 46 28 0
-0.031638097 0.077657141 0.60400003 64 45 53 0
-0.030487619 0.077657141 0.60400003 68 45 58 0
-0.029385716 0.077785715 0.60500002 73 52 63 0
-0.028233333 0.077785715 0.60500002 78 53 60 0
-0.027080953 0.077785715 0.60500002 81 53 58 0
-0.025885716 0.077657141 0.60400003 85 50 44 0
-0.02473524 0.077657141 0.60400003 77 55 31 0
-0.023623809 0.077785715 0.60500002 70 60 22 0
-0.022508573 0.077914283 0.60600001 68 55 14 0
-0.021319048 0.077785715 0.60500002 66 51 17 0
-0.020133335 0.077657141 0.60400003 60 32 20 0
-0.018982857 0.077657141 0.60400003 55 16 23 0
-0.017802857 0.077528574 0.60300004 55 15 26 0
-0.016681906 0.077657141 0.60400003 55 15 18 0
-0.015531429 0.077657141 0.60400003 52 20 10 0
-0.014309525 0.077271432 0.60100001 49 26 12 0
-0.013142857 0.077142857 0.60000002 49 27 14 0
-0.012 0.077142857 0.60000002 48 29 13 0
-0.011273334 0.0801 0.62300003 50 30 13 0
-0.010086667 0.0801 0.62300003 52 31 12 0
-0.0088857152 0.079971433 0.62200004 49 28 12 0
-0.0077009527 0.079971433 0.62200004 46 25 9 0
-0.0065266667 0.0801 0.62300003 47 21 7 0
-0.0053400001 0.0801 0.62300003 48 17 8 0
-0.0041533331 0.0801 0.62300003 43 13 9 0
-0.0029714287 0.080228575 0.62400001 39 10 6 0
-0.0017857143 0.080357142 0.625 34 8 3 0
-0.00059523806 0.080357142 0.625 30 7 2 0
0.00059619051 0.080485724 0.62600005 27 4 2 0
0.0017885716 0.080485724 0.62600005 25 2 1 0
0.0029761905 0.080357142 0.625 25 2 1 0
0.0041666664 0.080357142 0.625 25 2 2 0
0.005357143 0.080357142 0.625 24 2 3 0
0.0065476191 0.080357142 0.625 22 2 2 0
0.0077380952 0.080357142 0.625 22 1 1 0
0.0089285709 0.080357142 0.625 22 1 8 0
0.010119048 0.080357142 0.625 21 1 16 0
0.01132762 0.080485724 0.62600005 20 1 10 0
0.01252 0.080485724 0.62600005 21 1 5 0
0.013712382 0.080485724 0.62600005 22 3 4 0
0.014904764 0.080485724 0.62600005 21 1 3 0
0.016097143 0.080485724 0.62600005 20 1 2 0
0.017289525 0.080485724 0.62600005 17 1 2 0
0.018481907 0.080485724 0.62600005 14 2 1 0
0.019674286 0.080485724 0.62600005 10 2 1 0
0.021033334 0.081128575 0.63100004 6 3 1 0
0.022164762 0.080871426 0.62900001 8 3 1 0
0.022731431 0.078685716 0.61200005 10 5 1 0
0.023897145 0.078685716 0.61200005 14 6 2 0
0.025103811 0.07881429 0.61300004 17 7 5 0
0.026271429 0.07881429 0.61300004 23 8 9 0
0.027483812 0.078942858 0.61400002 28 10 13 0
0.028653333 0.078942858 0.61400002 35 11 18 0
0.029871428 0.079071432 0.61500001 42 12 20 0
0.031093335 0.079200007 0.61600006 39 13 22 0
0.032266673 0.079200007 0.61600006 36 14 35 0
0.033494286 0.079328574 0.61700004 32 6 49 0
0.034669526 0.079328574 0.61700004 28 3 34 0
0.035902858 0.079457149 0.61800003 24 3 19 0
0.037080001 0.079457149 0.61800003 20 4 17 0
0.038257144 0.079457149 0.61800003 18 5 16 0
0.039498094 0.079585716 0.61900002 17 7 14 0
0.040677145 0.079585716 0.61900002 13 5 13 0
0.041856192 0.079585716 0.61900002 9 4 7 0
0.043035239 0.079585716 0.61900002 7 6 1 0
0.044285715 0.079714283 0.62 5 7 6 0
0.045686666 0.0801 0.62300003 8 5 12 0
0.046948571 0.080228575 0.62400001 12 4 10 0
0.048214287 0.080357142 0.625 11 8 9 0
0.049483813 0.080485724 0.62600005 10 10 9 0
0.050757144 0.080614291 0.62700003 12 3 10 0
0.051951431 0.080614291 0.62700003 13 3 5 0
0.053315237 0.080871426 0.62900001 10 6 1 0
0.054686669 0.081128575 0.63100004 7 11 5 0
0.056065716 0.081385717 0.63300002 7 11 10 0
0.057361905 0.081514291 0.634 6 11 12 0
0.058661908 0.081642859 0.63500005 8 10 14 0
0.059965719 0.081771433 0.63600004 9 12 12 0
0.061177142 0.081771433 0.63600004 9 15 11 0
-0.06040762 0.081939049 0.62800002 30 21 25 0
-0.058928572 0.081547618 0.625 28 22 14 0
-0.057645712 0.081417143 0.62400001 27 27 13 0
-0.056366667 0.081286669 0.62300003 27 32 12 0
-0.055091433 0.081156194 0.62200004 27 31 15 0
-0.053733334 0.080895238 0.62 35 36 18 0
-0.052467622 0.080764763 0.61900002 43 40 23 0
-0.051288571 0.080764763 0.61900002 46 43 28 0
-0.050028574 0.080634288 0.61800003 50 40 31 0
-0.04869334 0.080373339 0.61600006 52 43 34 0
-0.047365714 0.080112383 0.61400002 54 44 37 0
-0.046120953 0.079981908 0.61300004 51 45 40 0
-0.044880003 0.079851434 0.61200005 49 46 42 0
-0.043642856 0.079720952 0.611 52 47 45 0
-0.042479049 0.079720952 0.611 56 46 45 0
-0.041180003 0.079460002 0.60900003 58 45 45 0
-0.03995429 0.079329528 0.60800004 60 48 45 0
-0.038796194 0.079329528 0.60800004 58 52 45 0
-0.037576191 0.079199053 0.60700005 57 51 43 0
-0.036420003 0.079199053 0.60700005 55 50 42 0
-0.035263814 0.079199053 0.60700005 53 45 29 0
-0.034051429 0.079068571 0.60600001 54 44 16 0
-0.032897141 0.079068571 0.60600001 55 45 33 0
-0.031690478 0.078938097 0.60500002 61 46 51 0
-0.030588571 0.079068571 0.60600001 67 46 57 0
-0.029434286 0.079068571 0.60600001 73 50 63 0
-0.028279999 0.079068571 0.60600001 79 53 67 0
-0.027125714 0.079068571 0.60600001 85 56 71 0
-0.025928572 0.078938097 0.60500002 92 56 55 0
-0.02473524 0.078807622 0.60400003 85 57 40 0
-0.023623809 0.078938097 0.60500002 79 61 37 0
-0.02247143 0.078938097 0.60500002 79 62 35 0
-0.021283811 0.078807622 0.60400003 79 55 34 0
-0.020100001 0.078677148 0.60300004 81 49 34 0
-0.018951431 0.078677148 0.60300004 84 37 32 0
-0.017773336 0.078546673 0.60200006 76 26 30 0
-0.016626669 0.078546673 0.60200006 68 26 23 0
-0.015454287 0.078416191 0.60100001 65 26 17 0
-0.014309525 0.078416191 0.60100001 62 24 17 0
-0.013142857 0.078285716 0.60000002 60 22 17 0
-0.012 0.078285716 0.60000002 58 30 17 0
-0.010857143 0.078285716 0.60000002 60 31 17 0
-0.010086667 0.081286669 0.62300003 63 29 15 0
-0.0088857152 0.081156194 0.62200004 62 27 13 0
-0.0077009527 0.081156194 0.62200004 61 27 15 0
-0.0065266667 0.081286669 0.62300003 57 28 16 0
-0.0053314292 0.081156194 0.62200004 53 20 17 0
-0.0041466667 0.081156194 0.62200004 51 16 17 0
-0.0029666668 0.081286669 0.62300003 50 11 12 0
-0.0017 0.077633336 0.59500003 44 9 8 0
-0.00056761905 0.077763811 0.59600002 39 7 6 0
0.00056761905 0.077763811 0.59600002 37 6 5 0
0.0017028572 0.077763811 0.59600002 35 4 3 0
0.0028380952 0.077763811 0.59600002 34 3 2 0
0.0041666664 0.081547618 0.625 34 5 2 0
0.005357143 0.081547618 0.625 34 7 3 0
0.0065476191 0.081547618 0.625 34 4 5 0
0.0077380952 0.081547618 0.625 33 3 7 0
0.0089285709 0.081547618 0.625 33 1 9 0
0.010119048 0.081547618 0.625 31 1 12 0
0.01132762 0.0816781 0.62600005 29 1 9 0
0.0125 0.081547618 0.625 30 2 7 0
0.013712382 0.0816781 0.62600005 32 2 5 0
0.014904764 0.0816781 0.62600005 27 2 4 0
0.016097143 0.0816781 0.62600005 23 1 3 0
0.017289525 0.0816781 0.62600005 22 4 2 0
0.018481907 0.0816781 0.62600005 21 2 1 0
0.018951431 0.078677148 0.60300004 16 2 1 0
0.020100001 0.078677148 0.60300004 11 2 1 0
0.021283811 0.078807622 0.60400003 12 4 1 0
0.022434287 0.078807622 0.60400003 14 5 5 0
0.023897145 0.079851434 0.61200005 16 7 8 0
0.025062859 0.079851434 0.61200005 18 9 10 0
0.026271429 0.079981908 0.61300004 21 16 13 0
0.027483812 0.080112383 0.61400002 24 14 16 0
0.0287 0.080242857 0.61500001 34 13 19 0
0.029871428 0.080242857 0.61500001 45 12 16 0
0.031093335 0.080373339 0.61600006 39 17 13 0
0.032266673 0.080373339 0.61600006 33 13 24 0
0.033494286 0.080503814 0.61700004 29 5 34 0
0.034669526 0.080503814 0.61700004 25 3 23 0
0.035844762 0.080503814 0.61700004 23 3 12 0
0.037080001 0.080634288 0.61800003 21 3 12 0
0.038257144 0.080634288 0.61800003 20 5 13 0
0.039434288 0.080634288 0.61800003 19 7 12 0
0.040677145 0.080764763 0.61900002 13 4 12 0
0.041856192 0.080764763 0.61900002 7 4 7 0
0.043035239 0.080764763 0.61900002 5 5 2 0
0.044428572 0.081156194 0.62200004 3 7 11 0
0.045759998 0.081417143 0.62400001 6 9 20 0
0.046948571 0.081417143 0.62400001 10 10 16 0
0.048214287 0.081547618 0.625 9 12 13 0
0.049483813 0.0816781 0.62600005 9 7 17 0
0.050757144 0.081808574 0.62700003 9 4 21 0
0.051951431 0.081808574 0.62700003 9 3 11 0
0.053484764 0.08233048 0.63100004 6 9 2 0
0.05486 0.082591429 0.63300002 4 10 4 0
0.056065716 0.082591429 0.63300002 2 12 7 0
0.057361905 0.082721904 0.634 1 11 8 0
0.058661908 0.082852393 0.63500005 4 10 9 0
0.059871431 0.082852393 0.63500005 7 11 7 0
0.061177142 0.082982861 0.63600004 9 12 6 0
-0.06040762 0.08313524 0.62800002 23 10 15 0
-0.058928572 0.082738094 0.625 21 13 10 0
-0.057645712 0.082605712 0.62400001 18 17 8 0
-0.056457143 0.082605712 0.62400001 21 27 7 0
-0.055091433 0.082340956 0.62200004 24 33 10 0
-0.053906672 0.082340956 0.62200004 32 37 14 0
-0.05255238 0.082076192 0.62 40 42 20 0
-0.051371425 0.082076192 0.62 44 39 27 0
-0.050028574 0.081811436 0.61800003 48 37 31 0
-0.04869334 0.081546672 0.61600006 49 38 35 0
-0.047365714 0.081281908 0.61400002 50 39 38 0
-0.046120953 0.081149533 0.61300004 47 36 42 0
-0.044880003 0.081017151 0.61200005 44 33 43 0
-0.043642856 0.080884762 0.611 48 34 45 0
-0.042479049 0.080884762 0.611 53 35 45 0
-0.041180003 0.080619998 0.60900003 55 37 46 0
-0.03995429 0.080487624 0.60800004 57 39 46 0
-0.038796194 0.080487624 0.60800004 55 40 46 0
-0.037576191 0.080355242 0.60700005 54 41 43 0
-0.036420003 0.080355242 0.60700005 52 42 41 0
-0.035205714 0.08022286 0.60600001 51 44 35 0
-0.034107622 0.080355242 0.60700005 52 43 30 0
-0.032897141 0.08022286 0.60600001 54 42 39 0
-0.03174286 0.08022286 0.60600001 58 45 49 0
-0.030588571 0.08022286 0.60600001 63 47 56 0
-0.029434286 0.08022286 0.60600001 70 47 63 0
-0.028279999 0.08022286 0.60600001 77 53 73 0
-0.027125714 0.08022286 0.60600001 82 55 84 0
-0.025971429 0.08022286 0.60600001 87 56 67 0
-0.024776191 0.080090478 0.60500002 83 58 50 0
-0.023584763 0.079958096 0.60400003 80 62 53 0
-0.022397144 0.079825722 0.60300004 80 63 56 0
-0.021248572 0.079825722 0.60300004 81 65 52 0
-0.020100001 0.079825722 0.60300004 83 56 48 0
-0.018920001 0.07969334 0.60200006 85 49 41 0
-0.017714286 0.079428568 0.60000002 80 44 34 0
-0.016599048 0.07956095 0.60100001 75 40 29 0
-0.015428572 0.079428568 0.60000002 73 35 25 0
-0.014285715 0.079428568 0.60000002 72 31 23 0
-0.013120953 0.079296194 0.59900004 69 26 21 0
-0.01198 0.079296194 0.59900004 67 32 21 0
-0.010839048 0.079296194 0.59900004 67 32 21 0
-0.0096980957 0.079296194 0.59900004 68 37 18 0
-0.0088857152 0.082340956 0.62200004 65 34 15 0
-0.0077009527 0.082340956 0.62200004 63 32 20 0
-0.0065266667 0.08247333 0.62300003 59 27 26 0
-0.0053314292 0.082340956 0.62200004 56 24 26 0
-0.0041466667 0.082340956 0.62200004 54 17 26 0
-0.0029619047 0.082340956 0.62200004 52 12 19 0
-0.0017 0.078766666 0.59500003 48 12 13 0
-0.00056666671 0.078766666 0.59500003 45 12 11 0
0.00056666671 0.078766666 0.59500003 41 4 9 0
0.001697143 0.078634292 0.59400004 37 7 6 0
0.0028285717 0.078634292 0.59400004 36 9 3 0
0.0039600004 0.078634292 0.59400004 36 12 3 0
0.0050914288 0.078634292 0.59400004 37 7 3 0
0.0062228576 0.078634292 0.59400004 37 6 8 0
0.0077380952 0.082738094 0.625 36 3 13 0
0.0089285709 0.082738094 0.625 36 2 11 0
0.010119048 0.082738094 0.625 34 2 9 0
0.011309524 0.082738094 0.625 33 3 9 0
0.0125 0.082738094 0.625 32 3 9 0
0.013712382 0.082870483 0.62600005 32 3 7 0
0.014261906 0.079296194 0.59900004 29 2 6 0
0.015402857 0.079296194 0.59900004 27 2 4 0
0.01657143 0.079428568 0.60000002 24 2 3 0
0.017714286 0.079428568 0.60000002 21 3 2 0
0.018888572 0.07956095 0.60100001 17 2 1 0
0.020100001 0.079825722 0.60300004 14 2 1 0
0.021283811 0.079958096 0.60400003 15 4 2 0
0.022434287 0.079958096 0.60400003 15 5 8 0
0.023897145 0.081017151 0.61200005 17 7 15 0
0.025062859 0.081017151 0.61200005 18 12 16 0
0.026271429 0.081149533 0.61300004 22 13 17 0
0.027483812 0.081281908 0.61400002 27 14 19 0
0.028653333 0.081281908 0.61400002 32 13 21 0
0.029871428 0.081414282 0.61500001 37 12 13 0
0.031042857 0.081414282 0.61500001 32 12 5 0
0.032266673 0.081546672 0.61600006 27 13 12 0
0.033494286 0.081679054 0.61700004 22 6 20 0
0.034669526 0.081679054 0.61700004 17 3 12 0
0.035902858 0.081811436 0.61800003 17 3 5 0
0.037080001 0.081811436 0.61800003 18 3 7 0
0.038257144 0.081811436 0.61800003 19 6 10 0
0.039498094 0.08194381 0.61900002 19 7 11 0
0.040677145 0.08194381 0.61900002 15 3 12 0
0.041856192 0.08194381 0.61900002 11 5 7 0
0.043104764 0.082076192 0.62 9 5 3 0
0.044428572 0.082340956 0.62200004 6 7 16 0
0.045759998 0.082605712 0.62400001 9 8 29 0
0.046948571 0.082605712 0.62400001 12 10 23 0
0.048214287 0.082738094 0.625 10 7 17 0
0.049483813 0.082870483 0.62600005 9 5 24 0
0.050919048 0.083267614 0.62900001 7 4 32 0
0.052117143 0.083267614 0.62900001 5 4 17 0
0.053484764 0.083532386 0.63100004 5 7 3 0
0.05486 0.083797142 0.63300002 4 10 4 0
0.056154288 0.083929524 0.634 3 8 5 0
0.057452384 0.084061913 0.63500005 3 7 4 0
0.058661908 0.084061913 0.63500005 5 8 4 0
0.059965719 0.084194295 0.63600004 7 10 2 0
0.061080955 0.084061913 0.63500005 10 11 1 0
-0.060503807 0.08446572 0.62900001 17 8 13 0
-0.058928572 0.08392857 0.625 13 9 12 0
-0.057738096 0.08392857 0.625 10 13 8 0
-0.056457143 0.083794288 0.62400001 16 23 5 0
-0.055180002 0.083659999 0.62300003 22 27 14 0
-0.053906672 0.083525717 0.62200004 29 39 24 0
-0.05255238 0.083257139 0.62 37 38 26 0
-0.051288571 0.083122857 0.61900002 42 37 29 0
-0.049947623 0.082854293 0.61700004 47 37 35 0
-0.04869334 0.082720011 0.61600006 47 35 42 0
-0.047442857 0.082585715 0.61500001 47 38 41 0
-0.046196189 0.082451433 0.61400002 43 27 41 0
-0.044953335 0.082317151 0.61300004 39 34 41 0
-0.043714289 0.082182862 0.61200005 44 33 42 0
-0.042479049 0.082048573 0.611 50 35 42 0
-0.041315239 0.082048573 0.611 52 35 42 0
-0.040020004 0.081780002 0.60900003 55 32 42 0
-0.038796194 0.08164572 0.60800004 53 30 43 0
-0.037576191 0.08151143 0.60700005 51 35 41 0
-0.036420003 0.08151143 0.60700005 50 40 40 0
-0.035263814 0.08151143 0.60700005 49 41 38 0
-0.034107622 0.08151143 0.60700005 51 42 36 0
-0.032951429 0.08151143 0.60700005 53 43 41 0
-0.031795241 0.08151143 0.60700005 56 45 46 0
-0.030639049 0.08151143 0.60700005 60 45 52 0
-0.02948286 0.08151143 0.60700005 68 45 58 0
-0.028279999 0.081377141 0.60600001 76 51 64 0
-0.027125714 0.081377141 0.60600001 79 55 70 0
-0.025928572 0.081242859 0.60500002 82 55 54 0
-0.02473524 0.08110857 0.60400003 82 59 38 0
-0.023545716 0.080974288 0.60300004 82 65 52 0
-0.022397144 0.080974288 0.60300004 82 72 66 0
-0.021248572 0.080974288 0.60300004 83 67 58 0
-0.020066667 0.080840006 0.60200006 85 64 51 0
-0.018857144 0.080571435 0.60000002 87 54 47 0
-0.017714286 0.080571435 0.60000002 85 47 43 0
-0.01657143 0.080571435 0.60000002 83 43 39 0
-0.015428572 0.080571435 0.60000002 82 40 36 0
-0.014261906 0.080437146 0.59900004 82 35 34 0
-0.013120953 0.080437146 0.59900004 79 21 32 0
-0.011960001 0.080302864 0.59800005 76 31 30 0
-0.010820953 0.080302864 0.59800005 74 34 28 0
-0.0096657146 0.080168575 0.597 73 34 25 0
-0.008514286 0.080034286 0.59600002 69 34 23 0
-0.0073790476 0.080034286 0.59600002 65 31 26 0
-0.0062438096 0.080034286 0.59600002 62 27 30 0
-0.0051000006 0.079900004 0.59500003 59 25 30 0
-0.0039666668 0.079900004 0.59500003 56 19 30 0
-0.0028285717 0.079765722 0.59400004 54 16 28 0
-0.001697143 0.079765722 0.59400004 52 6 26 0
-0.00056571432 0.079765722 0.59400004 51 4 21 0
0.00056571432 0.079765722 0.59400004 45 3 17 0
0.0016942859 0.079631433 0.59300005 39 5 13 0
0.0028238096 0.079631433 0.59300005 39 9 9 0
0.0039533339 0.079631433 0.59300005 39 8 9 0
0.0050914288 0.079765722 0.59400004 40 8 9 0
0.0062333331 0.079900004 0.59500003 41 7 12 0
0.0073790476 0.080034286 0.59600002 40 4 16 0
0.008514286 0.080034286 0.59600002 39 3 14 0
0.0096495235 0.080034286 0.59600002 38 3 13 0
0.010784762 0.080034286 0.59600002 38 3 11 0
0.01194 0.080168575 0.597 35 3 9 0
0.013099049 0.080302864 0.59800005 32 3 8 0
0.014238096 0.080302864 0.59800005 31 1 8 0
0.015402857 0.080437146 0.59900004 31 1 6 0
0.01657143 0.080571435 0.60000002 26 1 3 0
0.017714286 0.080571435 0.60000002 21 3 3 0
0.018888572 0.080705717 0.60100001 19 2 3 0
0.020033333 0.080705717 0.60100001 18 3 3 0
0.021283811 0.08110857 0.60400003 17 5 4 0
0.022545716 0.08151143 0.60700005 17 6 11 0
0.023858096 0.082048573 0.611 18 8 18 0
0.025062859 0.082182862 0.61200005 19 12 20 0
0.026271429 0.082317151 0.61300004 24 13 22 0
0.027439049 0.082317151 0.61300004 30 13 20 0
0.028653333 0.082451433 0.61400002 30 14 17 0
0.029871428 0.082585715 0.61500001 30 14 11 0
0.031093335 0.082720011 0.61600006 25 14 5 0
0.032266673 0.082720011 0.61600006 21 11 8 0
0.033494286 0.082854293 0.61700004 15 7 12 0
0.034669526 0.082854293 0.61700004 9 6 8 0
0.035902858 0.082988568 0.61800003 12 5 4 0
0.037140001 0.083122857 0.61900002 16 6 7 0
0.038319048 0.083122857 0.61900002 18 7 10 0
0.039498094 0.083122857 0.61900002 20 6 16 0
0.040677145 0.083122857 0.61900002 18 3 22 0
0.04192381 0.083257139 0.62 16 4 12 0
0.043104764 0.083257139 0.62 13 5 2 0
0.044428572 0.083525717 0.62200004 10 4 11 0
0.045759998 0.083794288 0.62400001 12 3 19 0
0.046873335 0.083659999 0.62300003 14 3 16 0
0.048137143 0.083794288 0.62400001 11 4 13 0
0.049404763 0.08392857 0.625 9 4 17 0
0.050919048 0.08446572 0.62900001 5 3 21 0
0.052282859 0.084734291 0.63100004 2 5 11 0
0.053484764 0.084734291 0.63100004 3 6 2 0
0.05486 0.085002862 0.63300002 5 7 4 0
0.056154288 0.085137136 0.634 5 5 5 0
0.057452384 0.085271433 0.63500005 5 5 5 0
0.058661908 0.085271433 0.63500005 6 5 5 0
0.059871431 0.085271433 0.63500005 8 4 7 0
-0.058928572 0.085119046 0.625 8 8 14 0
-0.057738096 0.085119046 0.625 5 10 9 0
-0.056457143 0.084982857 0.62400001 12 18 4 0
-0.055180002 0.084846668 0.62300003 20 21 19 0
-0.053993333 0.084846668 0.62300003 25 24 34 0
-0.05255238 0.0844381 0.62 30 28 32 0
-0.051288571 0.084301911 0.61900002 36 36 31 0
-0.049947623 0.084029526 0.61700004 43 38 40 0
-0.04869334 0.083893336 0.61600006 43 38 49 0
-0.047442857 0.08375714 0.61500001 43 38 44 0
-0.046196189 0.083620951 0.61400002 35 37 40 0
-0.044953335 0.083484761 0.61300004 27 36 39 0
-0.043714289 0.08334858 0.61200005 36 36 39 0
-0.042548575 0.08334858 0.61200005 45 37 39 0
-0.041315239 0.083212383 0.611 46 35 39 0
-0.040020004 0.082940005 0.60900003 48 30 39 0
-0.038860001 0.082940005 0.60900003 45 28 40 0
-0.037638098 0.082803816 0.60800004 42 26 40 0
-0.036480002 0.082803816 0.60800004 43 28 40 0
-0.035321906 0.082803816 0.60800004 45 30 41 0
-0.034107622 0.082667626 0.60700005 47 33 43 0
-0.032951429 0.082667626 0.60700005 50 36 43 0
-0.031795241 0.082667626 0.60700005 53 39 44 0
-0.030639049 0.082667626 0.60700005 56 42 49 0
-0.02948286 0.082667626 0.60700005 64 43 54 0
-0.028279999 0.082531422 0.60600001 72 49 55 0
-0.027125714 0.082531422 0.60600001 77 52 57 0
-0.025928572 0.082395233 0.60500002 82 54 41 0
-0.02473524 0.082259052 0.60400003 83 62 26 0
-0.023545716 0.082122862 0.60300004 84 69 51 0
-0.022397144 0.082122862 0.60300004 85 69 76 0
-0.021213336 0.081986673 0.60200006 86 69 65 0
-0.020033333 0.081850477 0.60100001 89 63 55 0
-0.018857144 0.081714287 0.60000002 92 60 54 0
-0.017684761 0.081578098 0.59900004 89 56 53 0
-0.01657143 0.081714287 0.60000002 85 52 50 0
-0.015402857 0.081578098 0.59900004 87 46 47 0
-0.014238096 0.081441909 0.59800005 89 40 45 0
-0.013099049 0.081441909 0.59800005 84 35 44 0
-0.01194 0.081305712 0.597 79 30 39 0
-0.010802858 0.081305712 0.597 77 38 35 0
-0.0096495235 0.081169531 0.59600002 76 42 33 0
-0.008514286 0.081169531 0.59600002 72 36 31 0
-0.0073790476 0.081169531 0.59600002 69 30 33 0
-0.0062333331 0.081033342 0.59500003 66 28 35 0
-0.0051000006 0.081033342 0.59500003 63 27 34 0
-0.0039666668 0.081033342 0.59500003 60 23 34 0
-0.0028285717 0.080897152 0.59400004 58 20 36 0
-0.001697143 0.080897152 0.59400004 55 12 39 0
-0.00056571432 0.080897152 0.59400004 53 4 32 0
0.00056476193 0.080760963 0.59300005 49 4 26 0
0.0016942859 0.080760963 0.59300005 45 4 20 0
0.0028238096 0.080760963 0.59300005 44 4 15 0
0.0039600004 0.080897152 0.59400004 42 4 15 0
0.0050914288 0.080897152 0.59400004 43 6 15 0
0.0062333331 0.081033342 0.59500003 44 10 17 0
0.007366667 0.081033342 0.59500003 44 10 19 0
0.0085000005 0.081033342 0.59500003 43 10 18 0
0.0096333344 0.081033342 0.59500003 42 7 17 0
0.010784762 0.081169531 0.59600002 41 5 13 0
0.01192 0.081169531 0.59600002 40 4 9 0
0.013055238 0.081169531 0.59600002 39 3 10 0
0.014238096 0.081441909 0.59800005 37 3 11 0
0.015402857 0.081578098 0.59900004 35 3 7 0
0.016543809 0.081578098 0.59900004 33 3 4 0
0.017714286 0.081714287 0.60000002 31 3 4 0
0.018888572 0.081850477 0.60100001 31 7 5 0
0.020100001 0.082122862 0.60300004 30 12 6 0
0.021248572 0.082122862 0.60300004 27 14 7 0
0.022582859 0.082803816 0.60800004 25 17 14 0
0.023740953 0.082803816 0.60800004 24 15 21 0
0.025021905 0.083212383 0.611 24 13 24 0
0.026185716 0.083212383 0.611 29 11 28 0
0.027439049 0.083484761 0.61300004 35 5 21 0
0.028653333 0.083620951 0.61400002 32 10 14 0
0.029871428 0.08375714 0.61500001 30 13 9 0
0.031093335 0.083893336 0.61600006 23 11 5 0
0.032266673 0.083893336 0.61600006 17 10 5 0
0.033494286 0.084029526 0.61700004 11 6 5 0
0.034669526 0.084029526 0.61700004 5 6 4 0
0.035902858 0.084165722 0.61800003 8 7 3 0
0.037140001 0.084301911 0.61900002 12 8 6 0
0.038319048 0.084301911 0.61900002 14 7 10 0
0.039498094 0.084301911 0.61900002 16 5 21 0
0.040742856 0.0844381 0.62 15 4 32 0
0.04192381 0.0844381 0.62 14 3 17 0
0.043104764 0.0844381 0.62 10 3 2 0
0.044428572 0.084710479 0.62200004 7 3 6 0
0.045759998 0.084982857 0.62400001 7 3 10 0
0.046948571 0.084982857 0.62400001 7 4 10 0
0.048214287 0.085119046 0.625 7 4 10 0
0.049483813 0.085255243 0.62600005 7 4 10 0
0.050919048 0.08566381 0.62900001 5 5 10 0
0.052117143 0.08566381 0.62900001 3 7 6 0
0.053484764 0.085936196 0.63100004 5 8 2 0
0.054946665 0.086344764 0.634 7 9 4 0
0.056154288 0.086344764 0.634 6 7 6 0
0.057452384 0.08648096 0.63500005 6 6 6 0
0.058754291 0.086617149 0.63600004 5 6 6 0
0.059965719 0.086617149 0.63600004 4 6 11 0
-0.059211429 0.086723812 0.62800002 4 7 9 0
-0.057738096 0.086309522 0.625 1 11 6 0
-0.056547619 0.086309522 0.625 9 14 2 0
-0.055268571 0.086171433 0.62400001 18 17 16 0
-0.053993333 0.086033337 0.62300003 20 20 30 0
-0.052721906 0.08589524 0.62200004 23 27 30 0
-0.051371425 0.085619047 0.62 31 35 31 0
-0.049947623 0.085204765 0.61700004 39 39 34 0
-0.048772383 0.085204765 0.61700004 39 40 37 0
-0.047442857 0.084928572 0.61500001 39 38 36 0
-0.046271428 0.084928572 0.61500001 27 36 35 0
-0.044953335 0.084652379 0.61300004 16 35 36 0
-0.043714289 0.08451429 0.61200005 28 43 36 0
-0.042548575 0.08451429 0.61200005 40 34 37 0
-0.041315239 0.084376194 0.611 41 35 37 0
-0.040151428 0.084376194 0.611 42 27 37 0
-0.038860001 0.084100001 0.60900003 38 27 37 0
-0.037700001 0.084100001 0.60900003 34 26 38 0
-0.036480002 0.083961904 0.60800004 37 27 40 0
-0.035321906 0.083961904 0.60800004 41 30 39 0
-0.03416381 0.083961904 0.60800004 44 35 38 0
-0.033005714 0.083961904 0.60800004 47 35 41 0
-0.031795241 0.083823815 0.60700005 50 35 44 0
-0.030639049 0.083823815 0.60700005 53 39 48 0
-0.02948286 0.083823815 0.60700005 60 42 51 0
-0.028279999 0.083685718 0.60600001 68 45 56 0
-0.027125714 0.083685718 0.60600001 75 50 62 0
-0.025928572 0.083547622 0.60500002 82 55 50 0
-0.02473524 0.083409525 0.60400003 84 65 39 0
-0.023545716 0.083271429 0.60300004 87 65 53 0
-0.022397144 0.083271429 0.60300004 88 65 66 0
